1811 1741 1733 1732 1732 1774 1773 1791 1748 1755 1743 1753 1755 1784 1816 1839 1875 1907 1956 1949 1985 1992 2059 2057 2102 2083 2158 2168 2207 2209 2244 2244 2225 2199 2212 2221 2260 2319 2319 2351 2350 2392 2374 2438 2438 2477 2503 2461 2390 2333 2296 2334 2312 2350 2328 2367 2393 2388 2416 2421 2454 2424 2364 2336 2386 2374 2391 2376 2373 2336 2304 2304 2295 2293 2297 2308 2288 2242 2242 2223 2224 2306 2275 2261 2261 2229 2150 2160 2138 2125 2097
1778 1778 1753 1757 1758 1809 1802 1854 1838 1847 1816 1790 1795 1835 1835 1847 1884 1955 1956 2003 1985.01 2049 2066 2119 2148 2139 2213 2206 2234 2255 2282 2286 2248 2208 2243 2254 2329 2319.01 2342 2351 2378 2378.01 2422 2424 2440 2460 2500 2434.01 2434 2381 2354 2378 2354 2361 2361 2375 2412 2441 2416.01 2461 2454.01 2458 2425 2401 2419 2408 2432 2419 2468 2408 2365 2323 2344 2330 2411 2388 2357 2298 2304 2223.01 2295 2351 2325 2295 2251.01 2251 2201 2158 2158 2115 2104
1800 1778.01 1821 1809 1830 1809.01 1863 1854.01 1888 1879 1833 1845 1829 1896 1886 1908 1920 1979 1988 2072 2066 2118 2130 2180 2180 2192 2194 2242 2268 2268 2293 2293 2294 2257 2292 2311 2344 2344 2354 2365 2416 2425 2442 2424.01 2466 2460.01 2484 2486 2435 2413 2409 2460 2424 2411 2377 2407 2439 2467 2481 2505 2488 2479 2425.01 2453 2453 2467 2513 2494 2453 2397 2355.01 2355 2416 2416 2464 2437 2402 2402 2410 2344 2371 2351.01 2359 2295.01 2320 2267 2225 2157 2126 2083 2067
1831 1833 1876 1874 1867 1836 1932 1932 1993 1935 1868 1845.01 1884 1896 1954 1973 1949 2060 2063 2130 2118 2175 2176 2236 2231 2229 2224 2257 2261 2283 2283.01 2305 2294 2275 2299 2334 2383 2360 2404 2423 2430 2430 2469 2477 2489 2461 2497 2497 2488 2441 2455 2460 2459 2426 2426 2455 2443 2505 2524 2537 2516 2519 2498 2495 2498 2556 2513.01 2571 2525 2440 2385 2384 2453 2472 2508 2513 2524 2444 2450 2395 2431 2431 2411 2378 2307 2251 2173.01 2173 2128 2096 2062
1831 1876 1901 1905 1946 1938 2017 2012 1992 1929.01 1929 1891 1949 1950 2024 1973.01 2043 2043.01 2104 2104.01 2167 2227 2222 2262 2262 2284 2266 2274 2275 2301 2301 2322 2322 2299 2299.01 2363 2383 2413 2404.01 2433 2474 2469 2487 2514 2566 2524 2540 2523 2507 2467 2507 2510 2520 2474 2463 2455.01 2497 2497.01 2543 2579 2572 2559 2522 2531 2531 2599 2598 2580 2511 2440.01 2440 2424 2429 2482 2508 2554 2524.01 2550 2550 2544 2522 2440 2381 2347 2319 2254 2191 2168 2162 2096.01 2185
1838 1854 1882 1900 1946 2011 2017 2050 2046 1984 1970 1958 2012 2012 2115 2076 2101 2099 2159 2167 2215 2224 2250 2251 2285 2284.01 2288 2297 2286 2310 2317 2329 2321 2317 2317 2361 2403 2428 2430 2482 2482 2508 2487.01 2539 2566 2556 2557 2557 2563 2517 2541 2536 2537 2494 2531 2499 2524 2534 2568 2579 2601 2602 2584 2549 2595 2626 2611 2575 2548 2502 2452 2439 2462 2548 2548 2614 2591 2584 2550.01 2555 2555 2481 2406 2346 2269 2245.01 2245 2245 2318 2284 2198
1831 1856 1873 1849 1895 1948 2003 2062 2046 1996 1996 2021 2012.01 2166 2188 2149 2144 2144 2195 2214 2251 2258 2278 2278 2311 2308 2314 2297.01 2310 2310.01 2328 2328.01 2328 2329 2335 2381 2420 2393.01 2413 2445 2491 2524 2544 2576 2589 2609 2587 2595 2563 2557 2557 2598 2588 2559 2554 2532 2543 2543 2580 2587 2632 2622 2600 2600 2646 2638 2659 2575 2543 2502.01 2511 2479 2479 2521 2588 2645 2595 2614 2604 2544 2520 2442 2383 2351 2318 2303 2268 2322 2318 2311 2313
1829 1824.01 1828 1822 1881 1957 1957.01 2037 2086 2063 2031 2111 2131 2223 2223 2209 2170 2180 2195 2245 2251 2268 2286 2299 2332 2334 2313 2315 2309 2318 2332 2340 2327.01 2327 2323 2352 2358 2393 2396 2426 2426.01 2475 2520 2584 2602 2628 2633 2647 2610 2644 2606 2634 2588.01 2616 2584 2590 2564 2564 2613 2610 2644 2654 2669 2642 2695 2697 2653.01 2653 2600 2569 2510 2479.01 2505 2505.01 2572 2614 2615 2565 2559 2498.01 2498 2430 2394 2372 2351 2371 2356 2411 2358 2360 2313
1819 1824 1802 1802.01 1830 1909 1977 2047 2093 2109 2109 2170 2226 2250 2253 2233 2233 2202 2204 2229 2251 2258 2286 2269 2274 2288 2303 2299 2289 2298 2289 2338 2329 2317 2315 2332 2323 2334 2374 2395 2433 2475 2510 2510 2530 2572 2624 2646 2658 2652 2652 2651 2662 2644 2620 2631 2631 2631 2619 2650 2644.01 2673 2669.01 2697 2697 2710 2708 2657 2623 2578 2552 2525 2566 2571 2591 2616 2596 2569 2530 2522 2452 2430 2394.01 2422 2426 2432 2414 2409 2410 2384 2384
1796 1786 1786.01 1806 1874 1909 1924 2003 2048 2103 2147 2220 2235 2259 2270 2278 2234 2232 2228 2226 2218 2236 2254 2254 2274 2278 2278 2281 2271 2269 2288 2320 2282.01 2282 2300 2301 2321 2346 2379 2379.01 2391 2430 2477 2501 2518 2572 2550 2612 2602 2602 2627 2651 2673 2680 2665 2684 2670 2678 2653 2673 2673 2716 2703 2713 2697.01 2717 2717 2727 2662 2593 2614 2600 2605 2605 2674 2632 2572 2542 2505.02 2505.01 2505 2464 2468 2422.01 2473 2432.01 2435 2361 2342 2312 2337
1752 1755 1808 1808 1865 1902 1948 2004 2078 2078.01 2180 2202 2239 2259 2276 2278 2249 2227.01 2236 2208 2212 2228 2252 2241 2245 2249 2275 2267 2255 2245.01 2261 2290 2288 2269 2300 2299 2293.01 2311 2337 2379 2383 2409 2475 2475 2477 2504 2538 2580 2580 2580 2565 2606 2641 2680 2687 2686 2686 2707 2713 2735 2724 2742 2730 2743 2732 2746 2750 2730 2662.01 2682 2638 2674 2647 2693 2674 2641 2638 2563 2544 2508 2563 2534 2494 2494 2516 2471 2401 2361 2308.01 2308 2271
1754 1721.01 1766 1814 1875 1900 1948 1972 2084 2163 2213 2225 2256 2262 2289 2260 2243 2227 2203 2203 2205 2218 2220 2229 2242 2243 2243.01 2256 2244 2245 2278 2253 2253 2236 2254 2269 2293 2328 2337 2332 2373 2371 2389 2441 2472 2503 2480.01 2516 2521 2535 2545 2587 2635 2635 2665 2687 2677 2707 2743 2743 2754 2781 2764 2764 2749 2774 2774 2770 2738 2744 2696 2722 2711 2724 2728 2685 2638 2585 2544.01 2605 2603 2584 2573 2545 2513 2460 2443 2387 2350 2296 2241
1714 1721 1721.01 1798 1848 1926 1948 2019 2084 2120 2197 2253 2275 2285 2273 2247 2238 2226 2196.01 2199 2202 2205 2211 2207.02 2229 2243 2253 2256 2233 2231.01 2243 2225.01 2234 2233 2247 2277 2277.01 2302 2316 2329 2352 2351 2351 2371 2422 2446 2480 2491 2492 2492 2486.01 2536 2560 2598 2599 2661 2626 2663 2722 2751 2774 2781 2785 2764.01 2778 2774.01 2783 2786 2764 2791 2758 2699.02 2707 2697 2714 2694 2694 2689 2636 2620 2603 2585 2585 2551 2536 2481 2427 2393 2359 2359 2326
1701 1735 1761 1848 1892 1933 1973 2038 2071 2190 2197 2279 2279 2283 2294 2260 2210 2202 2196 2196 2204 2207 2208 2207.01 2218 2218 2238 2246 2226 2231 2223 2225 2221 2225 2234 2251 2284 2293 2301 2308 2317 2326 2338 2351 2402 2379 2425 2431 2457 2457 2486 2526 2526 2514 2513.01 2556 2625 2665 2715 2715 2758 2784 2783 2784 2775 2774 2777 2792 2802 2791 2761 2699.01 2699 2654 2653 2649 2690 2674 2658 2601 2607 2568 2571 2515 2504 2458 2458 2404 2382 2352 2326
1703 1775 1775 1830 1904 1994 2025 2102 2134 2202 2247 2279 2296 2268 2274 2251 2241 2192 2185 2192 2204 2212 2205.01 2207 2193.01 2203 2223 2222 2196 2196 2198 2212 2216 2223 2250 2250.01 2267 2282 2287 2308 2302 2314 2314 2318 2347 2370 2411 2387 2421 2387 2423 2449 2477 2475 2513 2533 2577 2654 2678 2708 2746 2778 2762.01 2773 2766 2768 2789 2803 2780 2780 2784 2765 2696 2654 2626.01 2626 2627 2669 2629 2558.01 2558 2527.01 2527 2471 2470 2438 2432 2363 2352 2303 2314
1689 1721 1795 1830 1945 1945.01 2034 2118 2153 2226 2279 2276 2276 2252 2254 2220 2208 2183.03 2183.02 2183.03 2190 2203 2205 2205 2193 2192 2189 2185 2186 2183 2182 2203 2196 2210 2224 2263 2265 2274 2266 2279 2269.01 2284 2306 2318 2332 2317.01 2340 2344 2360 2370 2408 2439 2439 2433.01 2469 2575 2613 2648 2648 2663 2701 2730 2762 2751 2764 2764.01 2775 2793 2774 2764 2734 2724 2689 2685 2642 2605.01 2608 2634 2588 2588 2523 2529 2477 2428 2416 2365.01 2380 2335 2312 2250 2244
1743 1759 1794 1821 1902 1992 2085 2118 2156 2188 2232 2261 2264 2228.01 2228 2200 2196 2183.02 2183.01 2183.02 2192 2211 2211 2209 2209 2194 2189 2178.01 2178 2174 2164 2181 2190 2210 2211 2211 2247 2261 2255 2259 2269 2272 2283 2304 2305 2317 2326 2344 2329 2346 2355 2385 2409 2433 2486 2492 2573 2573.01 2625 2666 2703 2718 2718.01 2743 2743.01 2769 2775 2785 2785 2761 2726 2691 2656.01 2656 2605.01 2605 2584.01 2584 2569 2554 2510 2494 2477 2444 2400 2365 2339 2335 2300 2261 2242
1743 1771 1834 1871 1955 1955.01 2065 2112 2173 2199 2223 2223.01 2242 2251 2209 2200 2196 2183.01 2183 2183.01 2196 2209 2211 2227 2233 2224 2199 2183 2169 2163 2151 2156 2168 2182 2194 2199 2247 2254 2252.01 2253 2260 2267 2281 2298 2305 2305 2305.01 2318 2324 2336 2352 2352 2381 2408 2444 2492 2512 2577 2577 2642 2680 2686 2733 2748 2758 2732 2779 2778 2779 2759 2726.01 2733 2670 2642 2616 2598 2585 2566 2555 2554 2539 2501 2482 2431 2409 2409 2383 2338 2315 2261 2228
1743 1752 1811 1913 1928 2015 2108 2134 2134.01 2173 2196 2225 2222 2223 2180 2180.01 2199 2208 2170 2183 2201 2201.01 2217 2226 2222 2209 2206 2167.01 2167 2148.01 2148.02 2153 2157 2173 2180 2189 2203 2243 2252 2258 2260 2271 2276 2276 2280 2284 2307 2308 2304.01 2318 2319 2346 2389 2415 2448 2448.01 2504 2531 2574 2642 2654 2654 2672 2697 2719 2714 2762 2769 2769 2769 2756 2741 2688 2644 2628 2671 2638 2585 2555 2539.02 2539.01 2547 2535 2487 2452 2433 2395 2358 2361 2322 2278
1709 1802 1875 1974 1974 2079 2082 2110 2134 2177 2196 2198 2205 2194 2175 2187 2196 2178 2156 2164 2189 2209 2214 2235 2222 2213 2186 2202 2152 2148 2154 2168 2168 2169 2178 2201 2229 2241 2241.01 2271 2273 2279 2268 2266.01 2266.02 2281 2288 2291 2304 2317 2321 2321.01 2366 2418 2460 2475 2500 2530 2525 2561 2575 2616 2656 2697 2657 2694 2681 2725 2745 2764 2761 2768 2730 2704 2684 2692 2625 2578.01 2578 2543 2539.02 2575 2535 2489 2452 2440 2427 2373 2331 2309 2256
1731 1801 1849 1980 2046 2077 2085 2052 2052 2119 2182 2175 2205 2158 2158 2189 2200 2159 2129 2159 2183 2183 2196 2212 2184 2191 2162 2190 2127 2116 2159 2168 2170 2169 2175 2194 2205 2205 2258 2260 2269 2252 2257 2266 2274 2277 2283 2275 2275 2289 2305 2329 2366 2427 2427.01 2450 2486 2499 2514 2533 2544 2544 2578 2606 2604 2645 2642 2711 2693 2738 2750 2768 2752 2704.01 2726 2690 2668 2630 2566 2543.01 2552 2575 2581 2521 2479 2437 2414 2364.01 2364 2299 2258
1736 1801 1923 2003 2003 2008 2037 1980 2025 2112 2163 2107 2125 2123 2150 2169 2175 2133 2125 2092 2153 2164 2183 2195 2154 2150 2131 2123 2083 2092 2152 2152 2152.01 2156 2175 2196 2193.01 2193.02 2199 2243 2251 2231.02 2247 2258 2258 2248.01 2260 2257 2273 2285 2312 2322 2333 2363 2430 2463 2486 2467 2493 2504 2503.01 2536 2533 2554 2544.01 2575 2588 2630 2685 2712 2723 2723.01 2754 2739 2712 2690 2647.01 2647 2614 2574 2529 2574 2577 2515.01 2515 2461 2418 2375 2330 2301 2267
1724 1782 1894 1946 1968 2008 1956 1956 1921.01 2047 2090 2068 2092 2113 2113 2116 2141 2090 2086 2056 2137 2104 2150 2144 2154 2122 2131 2096 2069.04 2075 2114 2144 2165 2173 2183 2183.01 2193 2198 2198.01 2226 2231 2231.01 2240 2252 2247 2248 2249 2252 2259 2278 2294 2317 2334 2373 2373 2421 2445 2460 2494 2492 2503 2500 2521 2523 2544 2567 2585 2585 2601 2658 2688 2730 2751 2741 2726 2691 2652 2627 2573 2551 2518.01 2518 2572 2585 2513 2457 2418.01 2418 2379 2344 2302
1758 1819 1850 1905 1866 1912 1855 1880 1921 2047 2025 2036 2070 2085 2086 2087 2100 2060 2046 1982.01 2018 2038 2087 2049 2049 2043.01 2077 2069.04 2069.03 2105 2105 2126 2159 2162 2182 2183 2191 2191.01 2199 2205 2209 2232 2229 2241 2225 2227 2243 2252 2281 2278.01 2278.02 2299 2316 2331 2367 2412 2439 2439.01 2463 2455 2473 2485 2515 2519 2519 2542 2556 2582 2601 2640 2640.01 2705 2709 2712 2700 2671 2645.01 2645 2588 2555 2525 2514 2556 2578 2544 2516 2486 2418 2386 2344 2324
1683 1724 1744 1798 1795 1825 1789 1789.01 1907 1958 2011 2047 2069 2069 2070 2081 2076 2060 1996 1982 1935 1947 1972 1973 2010 2043 2050 2077 2069.02 2074 2104 2136 2149 2159 2159.01 2179 2184 2199 2199.01 2205 2207 2205 2210 2210.01 2211 2230 2245 2245 2268 2284 2288 2295 2318 2331 2331.01 2361 2407 2439 2443 2444 2444 2457 2472 2494 2518 2550 2558 2581 2594 2629 2672 2677 2709 2689 2689 2681 2671 2639 2580 2560 2549 2500 2496.01 2525 2528 2527 2487 2487 2410 2370 2339
1661 1715 1744 1707 1757 1731 1752 1806 1896 1933 1964 2032 2047 2063 2064 2070 2072 2072 2016 1961 1917 1947 1934 1934 1931.01 1964 2052 2072 2069.01 2085 2085.01 2115 2125 2145 2162 2159 2193 2192 2206 2203.01 2207 2204 2210 2216 2211.01 2228 2234 2237 2267 2276 2280 2312 2312.01 2315 2331 2357 2395 2395 2413 2436 2440 2457 2482 2482.01 2496 2507 2540 2563 2602 2592 2592 2616 2659 2639 2663 2670 2667 2644 2610 2560 2549 2496.01 2496 2484 2483.01 2510 2499 2461 2423 2389 2395
1599 1625 1676 1666 1701 1712 1712.01 1777 1829 1915 1964 2033 2047 2030 2030.01 2059 2072 2072 1952 1923 1878 1888 1888.01 1896 1931 1978 2031 2031 2069 2085 2131 2115.01 2134 2124.01 2132 2153 2169 2186 2201 2203 2203 2195 2210 2232 2231 2228.01 2234 2240 2242 2264 2280 2326 2313 2313 2325 2336 2349 2373 2388 2408 2383 2436 2457 2483 2481 2507 2512 2512 2513 2558 2567 2609 2628 2613.01 2635 2655 2666 2634 2590 2540.01 2540 2532 2492 2483.01 2483 2492 2499 2479 2461 2410 2356
1578 1593 1623 1658 1667 1746 1753 1844 1867 1933 1933.01 2008 2030 2011 2030 2033 2033 2003 1904 1888 1809.01 1835 1896 1896.01 1966 1967 1996 2017 2099 2117 2102 2118 2122 2124 2136 2153 2161 2178 2193 2193 2192 2193 2222 2251 2269 2276 2249 2266 2244 2256 2256.01 2281 2319 2312 2325 2341 2341 2335 2340 2360 2378 2437 2445 2445 2428 2458 2449 2474 2488 2540 2540.01 2543 2612 2613 2627 2655 2659 2639 2614 2576 2549 2535 2493 2500 2478 2461 2473 2460 2432 2372.01 2372
1587 1589 1672 1658.01 1733 1798 1798 1853 1888 1921 1947 1997 2011 1977 1978 1923 1945 1927 1904 1825 1809 1809.01 1874 1941 1985 1987 2009 2023 2059 2090 2079 2103 2102.01 2102.02 2124 2153 2181 2187 2190 2193 2160 2175 2187 2246 2291 2300 2300 2326 2293 2288 2263 2269 2299 2284.01 2300 2333 2323 2325 2340 2348 2348.01 2369 2387 2407 2413 2431 2437 2447 2481 2494 2572 2587 2609 2609 2593 2622 2604 2639 2617 2576.01 2581 2547 2524 2483 2468 2453.01 2453 2468 2444 2403 2345
1634 1650 1738 1738 1789 1789.01 1837 1853 1874 1874.01 1943 1951 1951 1933 1892 1850.01 1850 1778 1816 1803 1808 1851 1893 1913 1959 1996 2009 2029 2059 2068 2077 2080 2102 2113 2137 2170 2151 2167 2143 2153 2158 2164 2186 2186 2219 2277 2284 2326 2311 2315 2293 2269.01 2269.02 2284 2298 2322 2322 2318.04 2325 2352 2353 2355 2387 2387.01 2397 2425 2437 2464 2515 2515 2588 2616 2626 2584 2541 2560 2542 2578 2611 2617 2584 2547 2518.01 2518 2473 2466 2447 2457 2416 2402 2368
1597 1650 1695 1762 1781 1826 1771 1802 1839 1885 1941 1951 1870 1887 1891 1853 1765 1738 1761 1732.01 1774 1802 1881 1946 1986 1992 1992.01 2011 2048 2060 2077 2087 2087.01 2097 2112 2122 2134 2151 2129.01 2129.02 2143 2159 2168 2170 2189 2240 2215 2245 2297 2315 2281 2269.02 2283 2283.01 2318 2318.01 2318.02 2318.03 2326 2333 2357 2355.01 2357 2390 2401 2427 2427.01 2462 2495 2568 2588 2634 2626 2618 2523 2517 2526 2556 2605 2605 2605 2578 2539 2510 2465 2434.01 2434 2456 2462 2402 2369
1597 1653 1653.01 1699 1712 1745 1759 1796 1871 1871.01 1902 1883 1815 1852 1820 1793 1744 1724 1697 1732 1769 1802 1886 1926 1958 2039 2014 2052 2053 2058 2068 2097 2092 2113 2117 2111 2111.01 2118 2129 2129.01 2143 2163 2140.01 2142 2155 2165 2199 2234 2253 2253 2273 2278 2309 2320 2330 2318.02 2318.03 2318.04 2328 2333 2349 2361 2361 2400 2401 2435 2439 2477 2518 2543 2582 2630 2623 2587 2523 2487.01 2487 2511 2542 2576 2585 2566 2562 2526 2477 2444 2432 2463 2479 2479 2455
1549 1599 1665 1680 1712 1709.01 1726 1799 1843 1907 1862 1825 1775 1758 1729.01 1759 1677 1679 1665 1665.01 1768 1820 1890 1926 2001 2001.01 2066 2059 2077 2077 2079 2094 2094 2105 2116 2110 2124 2102 2115 2133 2133.01 2133.02 2140 2150 2155 2183 2183.01 2205 2242 2252 2306 2300 2328 2344 2347 2338 2318.04 2318.05 2338 2338 2364 2363 2401 2400.01 2420 2435 2449 2463 2496 2553 2596 2629 2629 2616 2586 2507 2486.01 2505 2537 2517 2542 2561 2562 2511 2477 2440 2427.01 2431 2498 2501 2463
1549 1609 1609.01 1657 1678 1709 1744 1824 1874 1908 1905 1812 1775 1729 1729 1684 1653 1641 1630 1686 1771 1836 1847 1910 2021 2062 2084 2100 2101 2101 2085 2100 2124 2105 2104 2087.01 2106 2100.01 2112 2166 2157 2172 2172 2202 2213 2191 2185 2228 2242 2289 2307 2340 2328.01 2342 2338.02 2338.01 2338 2318.06 2351 2363 2394 2395 2449 2432 2435 2435.01 2454 2463 2507 2507 2542 2595 2617 2582 2552 2537 2486 2456.02 2491 2486 2512 2533 2533 2532 2491 2440 2427 2468 2498 2503 2488
1514 1582 1619 1682 1693 1721 1753 1835 1875 1840 1829 1775 1775 1726 1700 1645 1653 1612 1612.01 1643 1715 1784 1855 1928 2044 2044.01 2076 2113 2130 2120 2124 2116 2105 2105 2090 2087 2082 2100 2106 2148 2189 2174 2192 2183 2185 2197 2219 2260 2281 2303 2328 2364 2364 2377 2352 2343 2338 2328 2362 2362.01 2421 2438 2465 2448 2445 2445 2448 2457 2486 2505 2545 2578 2577 2583 2540 2537 2470 2456.01 2471 2429.01 2442 2485 2533 2525 2470 2450 2404 2419 2477 2481 2469
1575 1582 1654 1667 1718 1721 1821 1855 1855 1798 1791 1746.01 1746 1689 1664 1568 1565 1602 1629 1702 1715 1805 1805.01 1906 1954 2045 2100 2122 2117.01 2127 2137 2140 2097 2094 2074 2074 2072.01 2085 2120 2148 2168 2174 2162 2173 2184 2221 2242 2268 2268.01 2309 2316 2377 2389 2387 2362 2363 2350 2363 2362.01 2408 2421 2461 2461.01 2464 2445 2441 2439 2462 2448.01 2477 2504 2546 2570 2564 2521.01 2521 2485 2456 2412.01 2429 2437 2485 2499 2487 2485 2427 2392.01 2430 2430 2439 2425
1606 1629 1702 1706 1747 1747 1806 1837 1807 1798 1746 1746 1694 1602 1583 1542 1560 1681 1681 1747 1751 1849 1866 1967 1997 2031 2064 2109 2117 2137 2137.01 2144 2120 2080 2051.01 2056 2072 2099 2100 2122 2134 2151 2161 2179 2211 2211.01 2220 2251 2292 2309 2356 2383 2415 2411 2395 2385 2378 2405 2405 2421 2421.01 2462 2465 2450 2445 2424 2425 2430 2448 2478 2488 2531 2529.01 2576 2577 2539 2480 2433 2412 2394 2416 2454 2456 2487 2431 2431 2392 2405 2422 2411 2386
1605 1605.01 1663 1718 1737 1774 1778 1800 1750 1756 1710 1701 1599 1602 1531 1531.01 1552 1590 1705 1782 1815 1853 1887 1956 2001 2052 2079 2126 2126 2145 2145 2119 2120 2062 2051 2051.01 2051.02 2077 2125 2122.01 2150 2150.01 2177 2177.01 2201 2216 2227 2259 2267 2313 2367 2383 2419 2411 2408 2408 2400 2429 2437 2454 2466 2491 2480 2459 2431 2416.01 2418 2418.01 2418.02 2452 2473 2475 2529 2580 2577 2536 2478 2454 2393 2392 2418 2418 2403 2421 2401 2398 2384.01 2404 2406 2411 2393
1581 1618 1663 1706 1706 1707 1710 1729 1693 1719 1606.01 1606 1540 1545 1522.01 1543 1595 1626 1661 1717 1822 1853 1901 1956 1959 2005 2047 2075 2123 2131 2115 2081 2089 2042.01 2042.02 2058 2064 2118 2118.01 2154 2150.01 2163 2177 2184 2194 2201 2224 2240 2287 2332 2382 2382.01 2408 2409 2392 2404 2418 2429 2439 2456 2492 2491 2481 2459.01 2459 2416 2410.01 2418 2441 2444 2458 2458.01 2475 2550 2570 2500 2478 2439 2439 2377.02 2383 2408 2396 2402 2373 2373 2384 2405 2421 2411 2409
1608 1646 1656 1647 1661 1669 1710 1668 1668 1606 1620 1550 1501 1499.01 1522 1531 1570 1606 1698 1767 1830 1830.01 1890 1914 1975 2005 2046 2075 2038 2088 2078 2046 2050 2042 2042.01 2099 2087 2124 2137 2169 2177 2197 2188 2200 2194.01 2199 2224 2258 2258 2278 2348 2392 2380 2386 2372.03 2384 2423 2454 2465 2480 2510 2510 2528 2494 2466 2416 2410 2418 2411 2424 2437 2475 2502 2558 2558 2520 2483 2419 2396 2377.01 2382 2379 2392 2367.01 2372 2372.01 2384 2418 2434 2451 2469
1594 1612 1643 1573 1573 1590 1612 1542 1594 1548 1564 1508 1498 1499 1522 1560 1631 1631 1689 1714 1827 1875 1943 1950 2001 1996 2008 2014 2007 2047 2042 2042 1991.01 2006 2087 2121 2122 2156 2155 2174 2182 2212 2217 2232 2232 2232 2224.01 2224.02 2257 2289 2348 2365 2378 2372.01 2372.02 2390 2423 2423.01 2448 2470 2520 2538 2526 2500 2491 2467 2409 2399 2403 2424 2450 2450.01 2492 2521 2530 2475 2450 2423 2407 2377 2366 2351 2358 2367 2367.01 2385 2395 2424 2434 2461 2469
1592 1596 1557 1517.01 1533 1504 1503 1457.01 1496 1498 1489 1460 1469 1531 1531 1600 1613 1689 1689.01 1779 1827 1877 1957 1985 1983 1993 1964 1964 1957 1976 1948 1964 1991 2034 2051 2095 2116 2156 2164 2174 2204 2209 2221 2243 2242 2247 2224.02 2258 2257.01 2281 2325 2361 2357 2372 2372.01 2440 2436 2441 2448 2488 2531 2531 2505 2495 2470 2457 2387.01 2387 2405 2410 2442 2458 2488 2507 2464 2484 2443 2423 2380 2364 2356 2348.02 2353 2382 2396 2410 2418 2446 2438 2464 2467
1549 1547 1503 1517 1472 1493 1451 1457 1466 1419.01 1419.02 1424 1442 1517 1562 1633 1669 1757 1764 1867 1847 1902 1957 1976 1976 1942 1951 1940 1902 1923 1931 1948 2019 2037 2030 2059 2101 2101 2136 2166 2174 2209 2240 2243 2270 2260 2299 2307 2285 2311 2311.01 2340 2351 2409 2416 2459 2460 2479 2473 2477 2496 2519 2505 2474 2474 2437 2390 2378.01 2395 2419 2425 2450 2481 2485 2435 2451 2405.01 2405 2373 2369 2348 2348.01 2390 2382.01 2397 2447 2451 2473 2469 2473 2465
1502 1485 1415 1468 1448 1455 1399 1399 1400 1419 1419.01 1424 1475 1517 1576 1652 1723 1824 1854 1878 1878 1853 1903 1915 1942 1918 1941 1921 1888 1899 1931 1995 2019 2036 2014.01 2022 2035 2092 2107 2137 2159 2199 2261 2264 2299 2284 2322 2322 2331 2324 2349 2340.01 2384 2423 2423 2457 2462 2478 2469 2504 2504 2520 2500 2457 2436 2411 2390 2378 2392 2410 2425 2462 2476 2456 2428 2408 2405 2387 2339 2342 2342.01 2373 2402 2412 2438 2447 2474 2474 2482 2484 2438
1502 1423 1390 1390.01 1410 1430 1398 1372 1391 1398 1427 1477 1522 1533 1606 1652 1775 1775.01 1855 1876 1859 1830.01 1866 1842.01 1882 1912 1928 1885 1881 1909 1909.01 1974 2023 2018 2014 2022 2035 2035.01 2074 2119 2144 2200 2266 2266 2276 2297 2303 2327 2352 2363 2383 2398 2410 2414 2441 2457 2457.01 2457.02 2460 2511 2529 2519 2466 2444 2417 2401.01 2401 2376 2404 2441 2441 2457 2460 2458 2428 2398 2405 2379 2334.04 2334.05 2369 2390 2417 2417 2435 2457 2486 2497 2437 2435 2401
1431 1380 1369 1393 1410 1412 1412 1362.01 1435 1438 1498 1521 1611 1611 1656 1677 1784 1814 1848 1844 1828 1830 1811 1842 1906 1912 1906 1886 1877.05 1892 1927 1973 2001 1985 1996 2005 2017 2049 2096 2116 2116 2130 2190 2239 2276 2266 2279 2279 2312 2355 2382 2401 2408 2408 2443 2466 2462 2457.03 2477 2511 2520 2540 2487 2444 2410.01 2410 2388 2369.02 2383 2425 2449 2462 2467 2458 2448 2396 2386 2345 2334.03 2349 2349.01 2383 2404 2422 2469 2477 2458.01 2458 2411 2410 2367
1390 1331 1338 1330 1375 1367 1375 1362 1435 1500 1500 1590 1653 1665 1723 1740 1786 1825 1811 1823 1804 1805 1792 1792.01 1877 1915 1904 1886 1877.04 1892 1916 1940 1956 1967 1983 2002 2002 2012 2044 2064 2103 2120 2181 2146 2204 2200 2231 2264 2312 2346 2346 2354 2343.01 2385 2453 2463 2465 2460 2451.01 2486 2505 2527 2490 2490 2458 2422 2409 2369.01 2393 2425 2418 2431 2440 2410.01 2410 2364 2364 2334.01 2334.02 2354 2368 2387 2415 2443 2450 2459 2459 2435 2411 2375 2341
1335 1312 1299 1322 1353 1350 1350 1350.01 1374 1488 1558 1636 1653 1657 1689 1743 1786 1819 1767.01 1767 1769 1769.01 1785 1817 1877 1910 1883 1881 1877.03 1891 1917 1941 1953 1953 1960 1986 1995 2019 2046 2054 2054 2069 2092 2125 2175 2158 2158.01 2215 2281 2301 2322 2312 2343 2322.01 2376 2444 2444 2448 2451 2481 2489 2507 2516 2496 2449 2426 2388 2369 2355.04 2385 2398 2431 2411 2411 2388 2327.01 2329 2334 2346 2382 2382 2402 2405 2443 2453 2441 2441 2440 2405 2338 2341
1310 1312 1286 1286.01 1308 1312 1322 1372 1419 1463 1516 1596 1632 1626 1683 1728 1728 1785 1796 1717 1769 1796 1785.01 1809 1831 1849 1877 1877.01 1877.02 1877.03 1878 1915 1925 1941 1955 1979 1985 2005 2022 2031 2047 2069 2073 2055.01 2090 2113 2162 2209 2254 2220 2275 2265 2284 2322 2381 2409 2409 2407.01 2419 2467 2489 2498 2495 2495 2464 2433 2373 2355.04 2355.03 2355.02 2368 2396 2394 2400 2358 2327 2327.01 2328 2361 2369 2416 2418 2431 2442 2433 2437 2438 2405 2377 2312 2290
1243 1294 1274.01 1294 1339 1312.01 1342 1352 1420 1463 1524 1550 1550 1558 1614 1656 1703 1728 1690 1692 1753 1830 1832 1875 1831.01 1874 1874.01 1917 1914 1885 1881 1895 1902 1923 1938 1955 1999 2013 1993 1993 2022 2041 2040 2055 2065 2113 2113 2166 2188 2201 2243 2247 2277 2298 2330 2356 2364 2407 2428 2452 2478 2465 2480 2486 2464 2413.01 2413 2382 2355.02 2355.01 2358 2390 2377.01 2377 2320.04 2320.05 2357 2364 2394 2394 2432 2428 2431 2442 2423 2437 2416 2355 2348 2281 2240
1245 1272 1274 1274.01 1401 1393 1359 1371 1437 1437 1437.01 1499 1502 1558 1596 1656 1600 1604 1656 1728 1797 1873 1873 1903 1904 1917 1943 1964 1937 1971 1919 1902 1902.01 1922 1938 1969 1962.01 1984 1971.01 1985 2003 2022 2022.01 2041 2048 2067 2103 2137 2148 2148 2181 2231 2270 2298 2325 2303 2303 2365 2433 2433 2449 2429 2429 2461 2490 2457 2415 2377 2355.01 2355 2339 2358 2377 2320.02 2320.03 2332 2353 2364 2417 2428 2443 2440 2431 2423 2393 2397 2355 2355 2316 2316 2224
1252 1263 1274 1386 1450 1450 1442 1383 1402 1419 1453 1462 1492 1492.01 1537 1558 1587 1604 1669 1669.01 1758 1831 1916 1924 1923 1951 1947 2027 2008 2005 1950 1902.01 1902.02 1902.03 1912 1937 1962 1962 1971 1971 1985 1987 2023 2035 2061 2069 2067.01 2084 2111 2146 2172 2225 2209 2244 2250 2278 2285 2365 2417 2417 2406 2403.01 2423 2449 2468 2423.01 2423 2396 2375 2343 2327.01 2327 2327 2320.01 2320.02 2341 2353 2386 2417 2432 2426.01 2442 2411 2392 2344.01 2344 2307 2322 2257 2258 2190
1289 1376 1376 1448 1452 1504 1442 1398 1402 1410 1479 1497 1555 1537 1586 1586 1639 1652 1675 1705 1797 1858 1882 1936 1968 1951.01 2002 2027 2040 2059 2020 1965 1929 1922 1912.01 1912.02 1926 1945 1953 1957 1965 1985 1985.01 2035 2053 2066 2067 2071 2104 2104.01 2155 2186 2192 2233 2216 2216.01 2270 2317 2384 2392 2398 2403 2403.01 2410 2427 2432 2410 2396 2381 2375 2342 2300 2305 2320 2323 2355 2353.01 2393 2420 2426 2426 2420 2420 2337 2356 2288 2259 2271 2222 2222 2209
1348 1438 1458 1516 1533 1562 1523 1507 1452 1458 1479 1559 1559 1634 1677 1669 1722 1699 1778 1726 1784 1823 1895 1957 2048 2048 2082 2061 2103 2059 2023 1965.01 2015 1989 1943 1941 1926.01 1933 1933.01 1960 1960.01 1987 1997 2040 2055 2044.01 2047 2054 2069 2118 2155 2170 2150.01 2155 2187 2221 2323 2359 2378 2378 2364 2373 2405 2427 2404 2404 2376 2387 2381 2375 2333 2297.01 2297.02 2355 2350 2376 2364 2411 2417 2422 2425 2370 2375 2296 2294 2223 2231 2198 2209 2187 2209
1381 1446 1446.01 1485 1529 1567 1552 1551 1551 1576 1566 1649 1643 1696 1677.01 1720 1725 1807 1778.01 1785 1847 1863 1941 1974 2038 2083 2118 2128 2135 2137 2101 2056 2029 1989 1956 1956 1992 1945 1938 1966 1998 2014 2014 2019 2031 2044 2048 2085 2085 2128 2142 2149 2150 2144 2187 2222 2265 2318 2337 2356 2357 2384 2376.01 2398 2398 2389 2362 2361 2339 2359 2314 2297 2310 2355 2384 2384 2405 2427 2439 2423 2406 2341.01 2341 2253 2230 2173 2180 2160 2160 2108 2136
1342 1381 1449 1485 1522 1522.01 1583 1626 1609 1666 1675 1715 1700 1776 1759 1797 1790 1849 1849 1855 1847.01 1910 1941 2009 2038 2053 2055 2088 2102 2151 2133 2133 2100 2036 2031 1997 2018 1976 2003 1966.01 1966.02 1988 1996 2019 2035 2039 2044 2074 2114 2132 2149 2130 2124 2124.01 2155 2214 2264 2304 2304 2305 2337 2351 2376 2382 2382 2382 2325 2319 2286 2311 2280 2284 2284.01 2331 2350 2400 2397 2427 2427.01 2445 2407 2365 2278 2219 2182 2154 2147 2129 2120 2076 2082
1377 1377.01 1418 1449 1503 1543 1616 1626 1702 1676 1714 1715 1777 1887 1839 1893 1860 1886 1885 1924 1899 1947 1960 1983 2011 2032 2055 2061 2061 2092 2138 2125 2110 2055 2089 2089 2077 2048 2002 1973 1966.03 1966.04 1983 1983.01 2016 2039 2062 2074 2083 2122 2113 2089 2098 2131 2173 2155.01 2214 2235 2278 2293 2331 2314 2343 2342 2364 2348 2325 2285 2285 2269.01 2269.02 2269.03 2302 2318 2343 2343.01 2379 2393 2430 2431 2372.01 2372 2283 2248 2200 2154 2129.01 2129 2085 2047 2032
1412 1410 1449 1460 1506 1532 1633 1676 1744 1739 1778 1778 1855 1867 1910 1893.01 1906 1886.01 1929 1947 1955 1955 1971 1983 1983.01 1998 1996 2027 2055 2062 2104 2092 2131 2136 2108 2124 2077 2053 2077 2018 2000 1992 2014 1995 2024 2029 2029.01 2065 2060.01 2107 2086 2086 2086.01 2100 2125 2155 2201 2212 2212.01 2246 2281 2292 2312 2328 2328 2316 2326 2279 2262 2269 2269.01 2296 2296.01 2344 2343.01 2374 2401 2417 2416.01 2419 2410 2347 2278 2251 2187.01 2187 2129 2099 2055 2047 2011
1412 1402 1425 1497 1506 1601 1679 1719 1747 1777 1838 1857 1875 1882 1873 1915 1931 1934 1913 1947 1950 1950 1934 1943 1990 1983.01 1992 2021 2021 2013 2042 2091 2134 2166 2166 2188 2151 2119 2077 2040 2000.01 2061 2031 2041 2060 2055 2032 2040 2060 2071 2071.01 2073 2086 2109 2109.01 2132 2152 2176 2220 2246 2244 2244 2278 2279 2298 2277.01 2299 2252 2252 2257 2287 2348 2357 2386 2386 2403 2403 2413 2416 2424 2410 2402 2323 2274 2223 2173 2119 2069 2061 2026 2003
1373 1389 1465 1561 1561 1659 1672 1722 1747 1771 1828 1828 1829 1852 1838 1883 1887 1887 1885 1900 1913 1929 1914 1946 1943 1983 1969 1983 1999 2007 2045 2054 2096 2132 2161 2190 2188 2189 2135 2159 2092 2098 2060 2061 2061 2103 2073 2065 2060.01 2073 2096 2096 2119 2109.01 2109.02 2127 2134 2134 2161 2196 2172 2219 2246 2279 2261 2277 2228 2246 2246.01 2275 2313 2321 2364 2388 2400 2407 2420 2406 2406.01 2425 2408 2395 2323 2263.01 2263 2199 2167 2109 2053 2027 1983
1336 1358 1413 1567 1611 1666 1696 1681 1693 1696 1763 1808 1829 1817 1817 1798 1814 1855 1875 1885 1875 1875 1879 1912 1933 1967 1960 1960 1966 1985 2021 2054 2095 2132 2112 2123 2164 2188 2172 2214 2146 2184 2128 2120 2106 2109 2089 2121 2099 2095 2104 2130 2119 2109.02 2114 2114.01 2114.02 2125 2138 2155 2158 2158.01 2188 2239 2225 2227 2227.01 2227.02 2254 2254.01 2288 2321 2362 2365 2365.01 2380 2393 2372.02 2416 2415 2396 2377 2362 2286 2238 2167 2138 2114 2088 2053 2024
1287 1358 1450 1596 1596.01 1623 1655 1645 1655 1696 1696.01 1739 1773 1749 1780 1780 1814 1784 1838 1833 1855 1852 1866 1911 1907.01 1916 1950 1948 1968 1987 2003 2028 2034 2080 2109 2123 2159 2159 2179 2213 2233 2211 2179 2175 2175 2156 2131 2159 2122 2152 2152 2178 2163 2158 2114.01 2114.02 2114.03 2145 2138.01 2147 2149 2166 2197 2223 2209.01 2219 2255 2272 2334 2285 2313 2313.01 2313.02 2340 2365 2380 2372 2372.01 2396 2384 2381 2335 2326 2249.01 2249 2203 2168 2132 2090 2061 2028
1289 1309 1418 1517 1605 1623 1633 1633 1631.01 1668 1700 1705 1743 1711 1711 1729 1755 1774 1816 1810 1810 1800 1828 1880 1907 1935 1950 1946 1959 1965 1984 2005 2030 2077 2081 2109 2134 2154 2227 2242 2269 2281 2264 2222 2189 2156.01 2179 2181 2152 2163 2181 2211 2191 2178 2178 2149 2140 2210 2184 2172 2172 2209 2197.01 2206 2209 2247 2319 2319 2389 2355 2345 2330 2328 2337 2358 2358.01 2369 2378 2407 2384 2366 2359 2281 2258 2204 2167 2157 2131 2110 2073 2045
1316 1356 1456 1456 1513 1589 1588 1605 1631 1668 1651 1665 1670 1691 1680 1698 1726 1700.01 1750 1768 1786 1795 1843 1874 1900 1918 1921 1941 1959 1959.01 1959.02 1981 2006 2041 2087 2116 2161 2161 2199 2240 2254 2286 2285 2285 2288 2232 2237 2181 2176 2163.01 2203 2219 2265 2250 2178.01 2192 2206 2257 2251 2279 2241 2240 2205 2250 2251 2290 2295 2374 2389 2368 2368 2381 2387 2360 2381 2358.02 2360 2360.01 2374 2381 2330 2305 2249.01 2249 2206 2176 2141 2131 2092 2073 2035
1262 1341 1377 1449 1483 1572 1476 1520 1595 1634 1625 1651 1626 1626 1609 1662 1677 1700 1700 1768 1768.01 1809 1831 1884 1903 1914 1919 1931 1933 1959 1960 1983 2022 2023 2051 2089 2131 2171 2199 2220 2200.01 2223 2225 2285 2295 2268 2230.01 2230 2219 2213 2261 2272 2281 2281 2251 2217 2255 2257 2319 2322 2322 2301 2263 2315 2317 2353 2353 2427 2425 2420 2384 2425 2387.01 2410 2391 2398 2372 2363 2376 2367 2366 2327 2311 2237 2200 2175 2147 2147 2105 2067 2019
1296 1341 1377 1362 1418 1429 1433 1496 1572 1610 1580.01 1580 1565 1586 1581 1633 1603.01 1638 1649 1692 1792 1809 1860 1860.01 1910 1910.01 1925 1938 1942 1947 1947.01 1993 2011 2044 2069 2130 2130.01 2164 2178 2191 2200 2215 2225 2225.01 2271 2283 2281 2260 2272 2257 2311 2310 2344 2308 2304 2267 2296 2295 2345 2359 2349 2301.01 2305 2305.01 2361 2429 2429 2459 2446 2439 2439 2465 2458 2434 2418 2414 2414 2377 2372.01 2372 2366 2339 2311.01 2312 2237 2189 2153 2131 2069 2043 2030
1265 1280 1322 1350 1397 1366 1366.01 1458 1506 1530 1580 1541 1535 1535 1537 1567 1603 1627 1682 1720 1771 1833 1877 1890 1917 1922 1917 1930 1930.01 1944 1955 2004 2027 2032 2060 2095 2146 2154 2170 2191 2191.01 2222 2222.01 2232 2254 2279 2279.01 2304 2309 2326 2374 2360 2385 2385 2373 2327 2323 2318 2358 2372 2384 2355 2374 2354 2412 2429 2447 2465 2478 2499 2463 2483 2476 2496 2460 2452 2426 2378 2372.02 2393 2393 2393 2343 2296 2237 2188.01 2188 2134 2079 2060 2016
1261 1280 1318 1317.01 1321 1321.01 1373 1442 1469 1428 1467 1467.01 1494 1516 1537 1576 1576.01 1657 1734 1744 1815 1854 1870 1870 1875 1913 1913.01 1913.02 1974 1974 2002 2002.01 2031 2032 2092 2095 2141 2170 2179 2205 2211 2246 2245 2266 2254.01 2281 2279.02 2338 2358 2377 2385 2414 2408 2425 2373 2344 2388 2372 2400 2389 2421 2381 2418 2418 2448 2434 2455 2476 2483 2483.01 2511 2486 2507 2496 2457 2438 2438 2379 2391 2422 2421 2377 2334 2287 2261 2210 2177 2115 2079.01 2088 2036
1264 1279 1300 1317 1293 1326 1326 1351 1404 1404 1430 1467 1467.01 1528 1551 1620 1637 1716 1734 1772 1800 1832 1852 1863 1884 1903 1916 1936 1979 2013 2049 2023 2069 2069 2133 2138 2159 2170 2196 2196.01 2228 2245 2269 2271 2265 2312 2312 2344 2352 2372 2392 2399 2442 2427 2420 2412 2388.01 2444 2400.01 2468 2450 2450 2453 2451 2481 2470 2482 2479 2485 2501 2511 2515 2500 2500 2439 2434 2413 2379.01 2420 2420.01 2431 2370 2336 2228 2212 2162.01 2162 2119 2118 2079 2065
1258 1286 1280 1300 1282 1282 1322 1351 1386 1386 1419 1494 1511 1599 1610 1669 1669 1696 1721 1766 1799 1828 1828 1855 1872 1878 1916 1947 1979 1988 2012 2071 2089 2126 2122 2154 2147 2161 2182 2210 2240 2253 2251 2264 2253 2282 2352 2344 2363 2385 2390 2379 2387 2420 2421 2430 2430 2456 2484 2485 2468 2450 2450 2465 2477 2478 2482 2491 2465 2465 2471 2490 2485 2480 2428 2408 2424 2395 2395 2428 2401 2370 2324 2284 2215 2190 2121 2101 2089 2125 2107
